ply
format ascii 1.0
comment Created by Open3D
element vertex 1416
property double x
property double y
property double z
property uchar red
property uchar green
property uchar blue
end_header
0.728443 0.291622 0.947 169 166 161
0.73007 0.291314 0.946 170 167 162
0.731692 0.291006 0.945 172 169 164
0.732532 0.29039 0.943 172 169 164
0.732583 0.289466 0.94 170 167 162
0.734964 0.289466 0.94 174 171 166
0.734992 0.288543 0.937 171 168 163
0.737366 0.288543 0.937 171 168 163
0.737371 0.287619 0.934 165 162 159
0.739737 0.287619 0.934 167 164 161
0.740514 0.287003 0.932 168 165 162
0.742875 0.287003 0.932 168 165 162
0.745236 0.287003 0.932 168 165 162
0.746795 0.286695 0.931 169 166 163
0.748349 0.286387 0.93 169 166 163
0.0255479 0.109288 0.352 18 20 9
0.0264396 0.109288 0.352 16 18 7
0.0273313 0.109288 0.352 15 17 6
0.028223 0.109288 0.352 16 17 6
0.0291147 0.109288 0.352 17 18 7
0.0300064 0.109288 0.352 16 17 6
0.0308981 0.109288 0.352 16 17 6
0.0317897 0.109288 0.352 11 12 3
0.0326814 0.109288 0.352 10 11 2
0.0335731 0.109288 0.352 11 13 4
0.0344648 0.109288 0.352 10 12 3
0.0353565 0.109288 0.352 9 11 2
0.047071 0.101836 0.328 8 12 5
0.0479019 0.101836 0.328 7 11 4
0.0487328 0.101836 0.328 7 11 4
0.0494126 0.101526 0.327 3 7 0
0.0502409 0.101526 0.327 3 7 0
0.0509131 0.101215 0.326 6 10 3
0.0517389 0.101215 0.326 7 11 4
0.0524035 0.100905 0.325 6 10 3
0.0532268 0.100905 0.325 6 10 3
0.0540501 0.100905 0.325 4 8 1
0.0547045 0.100594 0.324 6 10 3
0.0555253 0.100594 0.324 8 12 5
0.0561721 0.100284 0.323 6 10 3
0.0568139 0.0999733 0.322 6 10 3
0.0576296 0.0999733 0.322 7 11 4
0.0584453 0.0999733 0.322 8 12 5
0.059077 0.0996628 0.321 7 11 4
0.0597036 0.0993524 0.32 4 8 1
0.0605142 0.0993524 0.32 6 10 3
0.0611332 0.0990419 0.319 8 12 5
0.0619413 0.0990419 0.319 10 11 5
0.0627493 0.0990419 0.319 6 10 3
0.0633582 0.0987314 0.318 7 11 4
0.0641638 0.0987314 0.318 6 10 3
0.0649693 0.0987314 0.318 6 10 3
0.065568 0.0984209 0.317 7 11 4
0.0663711 0.0984209 0.317 6 10 3
0.0671741 0.0984209 0.317 4 8 1
0.0679771 0.0984209 0.317 3 7 0
0.0687801 0.0984209 0.317 4 8 1
0.0695832 0.0984209 0.317 4 8 1
0.0701642 0.0981105 0.316 6 10 3
0.0709646 0.0981105 0.316 4 8 1
0.0717651 0.0981105 0.316 4 8 1
0.072336 0.0978 0.315 6 10 3
0.073134 0.0978 0.315 6 10 3
0.0739319 0.0978 0.315 6 10 3
0.0744926 0.0974895 0.314 4 8 1
0.0752881 0.0974895 0.314 4 8 1
0.0760835 0.0974895 0.314 6 10 3
0.0768789 0.0974895 0.314 6 10 3
0.0776743 0.0974895 0.314 4 8 1
0.0784698 0.0974895 0.314 4 8 1
0.0792652 0.0974895 0.314 6 10 3
0.0800606 0.0974895 0.314 7 11 4
0.0808561 0.0974895 0.314 7 11 4
0.0816515 0.0974895 0.314 6 10 3
0.0821843 0.097179 0.313 6 10 3
0.0829772 0.097179 0.313 7 11 4
0.0837701 0.097179 0.313 7 11 4
0.084563 0.097179 0.313 8 12 5
0.0853559 0.097179 0.313 7 11 4
0.0858736 0.0968686 0.312 8 13 3
0.0866639 0.0968686 0.312 9 14 4
0.0882446 0.0968686 0.312 14 15 2
0.089035 0.0968686 0.312 25 19 6
0.0898254 0.0968686 0.312 31 21 9
0.0995436 0.103699 0.334 63 38 18
0.10039 0.103699 0.334 72 44 25
0.100933 0.103389 0.333 62 34 15
0.101776 0.103389 0.333 60 32 13
0.10262 0.103389 0.333 62 32 14
0.103463 0.103389 0.333 62 32 16
0.103994 0.103078 0.332 63 33 17
0.104835 0.103078 0.332 74 44 26
0.105357 0.102768 0.331 77 44 27
0.106711 0.102457 0.33 77 44 27
0.107547 0.102457 0.33 76 43 26
0.108054 0.102147 0.329 77 44 27
0.108888 0.102147 0.329 69 39 21
0.109388 0.101836 0.328 55 25 7
0.110219 0.101836 0.328 77 47 29
0.110711 0.101526 0.327 71 41 23
0.111681 0.100905 0.325 74 44 26
0.112504 0.100905 0.325 76 46 28
0.112978 0.100594 0.324 75 45 27
0.113448 0.100284 0.323 68 38 20
0.114266 0.100284 0.323 66 36 18
0.114728 0.0999733 0.322 68 38 20
0.115544 0.0999733 0.322 67 39 20
0.115998 0.0996628 0.321 62 34 15
0.116447 0.0993524 0.32 84 56 39
0.116892 0.0990419 0.319 86 58 41
0.1177 0.0990419 0.319 82 54 37
0.118508 0.0990419 0.319 71 41 23
0.118942 0.0987314 0.318 76 46 28
0.119371 0.0984209 0.317 84 49 32
0.120174 0.0984209 0.317 89 52 36
0.120595 0.0981105 0.316 94 57 41
0.121396 0.0981105 0.316 95 59 40
0.123415 0.097179 0.313 92 53 35
0.124208 0.097179 0.313 101 62 42
0.124601 0.0968686 0.312 101 62 42
0.125392 0.0968686 0.312 99 60 40
0.126182 0.0968686 0.312 99 60 40
0.126972 0.0968686 0.312 99 60 40
0.127353 0.0965581 0.311 99 60 40
0.128141 0.0965581 0.311 102 61 40
0.128929 0.0965581 0.311 100 59 38
0.1293 0.0962476 0.31 100 59 38
0.130085 0.0962476 0.31 102 61 40
0.130448 0.0959371 0.309 104 63 42
0.131231 0.0959371 0.309 102 63 41
0.132013 0.0959371 0.309 104 65 43
0.132366 0.0956267 0.308 104 65 43
0.133147 0.0956267 0.308 105 64 43
0.133492 0.0953162 0.307 105 64 43
0.13427 0.0953162 0.307 108 64 44
0.135048 0.0953162 0.307 108 64 44
0.135383 0.0950057 0.306 108 64 44
0.136158 0.0950057 0.306 110 66 46
0.136933 0.0950057 0.306 109 65 45
0.137708 0.0950057 0.306 108 64 44
0.138483 0.0950057 0.306 110 66 46
0.139259 0.0950057 0.306 108 64 44
0.140034 0.0950057 0.306 106 62 42
0.140809 0.0950057 0.306 106 62 42
0.141584 0.0950057 0.306 106 62 42
0.141894 0.0946952 0.305 106 62 42
0.142667 0.0946952 0.305 106 62 42
0.143439 0.0946952 0.305 104 60 40
0.144212 0.0946952 0.305 104 60 40
0.144984 0.0946952 0.305 105 62 39
0.145757 0.0946952 0.305 104 61 38
0.14653 0.0946952 0.305 104 60 40
0.147302 0.0946952 0.305 105 61 41
0.148075 0.0946952 0.305 104 60 40
0.148848 0.0946952 0.305 105 61 41
0.14962 0.0946952 0.305 100 56 36
0.150393 0.0946952 0.305 102 58 40
0.151166 0.0946952 0.305 104 60 42
0.152436 0.0950057 0.306 98 57 38
0.153211 0.0950057 0.306 98 57 40
0.153987 0.0950057 0.306 99 58 41
0.154762 0.0950057 0.306 99 58 41
0.155537 0.0950057 0.306 98 57 38
0.156823 0.0953162 0.307 99 58 39
0.157601 0.0953162 0.307 97 56 37
0.158378 0.0953162 0.307 98 57 38
0.159674 0.0956267 0.308 98 57 38
0.160455 0.0956267 0.308 99 58 39
0.161758 0.0959371 0.309 99 58 39
0.162541 0.0959371 0.309 98 57 38
0.164381 0.0965581 0.311 92 53 33
0.165169 0.0965581 0.311 92 53 33
0.16649 0.0968686 0.312 95 56 38
0.168353 0.0974895 0.314 98 59 41
0.169687 0.0978 0.315 98 59 41
0.171026 0.0981105 0.316 101 65 46
0.172371 0.0984209 0.317 101 65 46
0.173174 0.0984209 0.317 101 65 46
0.175074 0.0990419 0.319 107 71 52
0.175882 0.0990419 0.319 103 67 48
0.177244 0.0993524 0.32 101 65 46
0.178055 0.0993524 0.32 100 64 45
0.179425 0.0996628 0.321 102 68 48
0.180799 0.0999733 0.322 103 69 49
0.181615 0.0999733 0.322 100 66 46
0.182997 0.100284 0.323 98 63 46
0.184384 0.100594 0.324 95 60 43
0.185205 0.100594 0.324 89 54 37
0.1866 0.100905 0.325 89 56 41
0.606185 0.320722 1.033 169 169 163
0.608802 0.320722 1.033 165 165 159
0.611419 0.320722 1.033 168 168 162
0.614036 0.320722 1.033 168 168 162
0.616652 0.320722 1.033 169 169 163
0.61867 0.320411 1.032 168 168 162
0.621886 0.320722 1.033 169 169 163
0.623898 0.320411 1.032 167 167 161
0.626512 0.320411 1.032 167 167 161
0.629127 0.320411 1.032 167 167 161
0.631741 0.320411 1.032 166 166 160
0.633741 0.320101 1.031 166 166 160
0.636352 0.320101 1.031 169 169 163
0.638964 0.320101 1.031 168 168 162
0.641576 0.320101 1.031 168 168 162
0.643563 0.31979 1.03 168 168 162
0.646172 0.31979 1.03 167 167 161
0.648781 0.31979 1.03 166 166 160
0.650758 0.31948 1.029 165 165 159
0.65273 0.319169 1.028 167 167 161
0.654696 0.318859 1.027 169 169 163
0.656658 0.318549 1.026 169 169 163
0.658614 0.318238 1.025 167 167 161
0.659276 0.317307 1.022 168 168 162
0.659274 0.316065 1.018 169 169 163
0.659903 0.315133 1.015 167 167 161
0.65921 0.313581 1.01 172 169 164
0.659803 0.312649 1.007 169 166 161
0.661039 0.312028 1.005 167 164 159
0.662264 0.311408 1.003 166 166 160
0.664142 0.311097 1.002 169 169 163
0.66668 0.311097 1.002 168 168 162
0.668551 0.310787 1.001 167 167 161
0.671086 0.310787 1.001 167 167 161
0.672949 0.310476 1 167 167 161
0.674807 0.310166 0.999 169 169 163
0.675981 0.309545 0.997 169 169 163
0.677146 0.308924 0.995 172 169 164
0.677617 0.307992 0.992 172 169 164
0.678073 0.307061 0.989 168 165 160
0.678514 0.306129 0.986 168 165 160
0.678249 0.304888 0.982 166 166 160
0.67935 0.304267 0.98 168 168 162
0.681137 0.303956 0.979 163 163 157
0.682221 0.303335 0.977 166 166 160
0.683995 0.303025 0.976 165 165 159
0.685764 0.302714 0.975 165 165 159
0.688234 0.302714 0.975 170 167 162
0.690704 0.302714 0.975 167 164 159
0.692463 0.302404 0.974 168 165 160
0.69493 0.302404 0.974 168 165 160
0.696681 0.302093 0.973 169 166 161
0.699146 0.302093 0.973 170 167 162
0.701611 0.302093 0.973 172 169 164
0.703352 0.301783 0.972 174 171 166
0.705088 0.301472 0.971 171 168 163
0.706091 0.300851 0.969 172 169 164
0.707083 0.30023 0.967 172 172 166
0.708799 0.29992 0.966 169 169 163
0.709773 0.299299 0.964 168 168 162
0.709999 0.298368 0.961 167 167 161
0.710209 0.297436 0.958 167 167 161
0.711148 0.296815 0.956 168 168 162
0.712077 0.296194 0.954 168 168 162
0.712996 0.295573 0.952 167 167 161
0.715407 0.295573 0.952 168 168 162
0.717819 0.295573 0.952 167 167 161
0.718718 0.294952 0.95 167 167 161
0.720365 0.294642 0.949 172 172 166
0.722769 0.294642 0.949 169 169 163
0.725173 0.294642 0.949 170 167 162
0.726811 0.294331 0.948 172 169 164
0.728443 0.294021 0.947 172 169 164
0.73007 0.29371 0.946 171 168 163
0.731692 0.2934 0.945 171 168 163
0.732532 0.292779 0.943 169 166 161
0.734142 0.292469 0.942 170 167 162
0.734964 0.291848 0.94 171 168 163
0.736561 0.291537 0.939 170 167 162
0.737366 0.290916 0.937 168 165 160
0.738161 0.290295 0.935 170 167 162
0.738945 0.289674 0.933 168 165 160
0.740514 0.289364 0.932 168 165 162
0.742875 0.289364 0.932 167 164 161
0.745236 0.289364 0.932 169 166 163
0.745993 0.288743 0.93 167 164 161
0.749153 0.289053 0.931 168 165 162
0.0255479 0.110179 0.352 17 19 8
0.0264396 0.110179 0.352 16 18 7
0.0273313 0.110179 0.352 16 18 7
0.028223 0.110179 0.352 16 17 6
0.0291147 0.110179 0.352 16 17 6
0.0300064 0.110179 0.352 14 15 4
0.0308981 0.110179 0.352 16 17 6
0.0317897 0.110179 0.352 11 12 1
0.0326814 0.110179 0.352 10 11 2
0.0335731 0.110179 0.352 10 12 3
0.0344648 0.110179 0.352 9 11 2
0.0353565 0.110179 0.352 10 12 3
0.0362482 0.110179 0.352 10 11 5
0.0440941 0.105484 0.337 9 13 6
0.047358 0.103293 0.33 7 11 4
0.0479019 0.102667 0.328 7 11 4
0.0487328 0.102667 0.328 7 11 4
0.0494126 0.102354 0.327 4 8 1
0.0502409 0.102354 0.327 4 8 1
0.0509131 0.102041 0.326 4 8 1
0.0517389 0.102041 0.326 7 11 4
0.0525647 0.102041 0.326 6 10 3
0.0532268 0.101728 0.325 6 10 3
0.0540501 0.101728 0.325 4 8 1
0.0548734 0.101728 0.325 6 10 3
0.0555253 0.101415 0.324 8 12 5
0.0561721 0.101102 0.323 6 10 3
0.0569904 0.101102 0.323 6 10 3
0.0576296 0.100789 0.322 7 11 4
0.0584453 0.100789 0.322 8 12 5
0.059077 0.100476 0.321 4 8 1
0.0597036 0.100163 0.32 4 8 1
0.0605142 0.100163 0.32 4 8 1
0.0611332 0.09985 0.319 7 11 4
0.0619413 0.09985 0.319 7 11 4
0.0627493 0.09985 0.319 4 8 1
0.0635574 0.09985 0.319 8 12 5
0.0641638 0.099537 0.318 8 12 5
0.0649693 0.099537 0.318 7 11 4
0.0657749 0.099537 0.318 7 11 4
0.0663711 0.099224 0.317 4 8 1
0.0671741 0.099224 0.317 6 10 3
0.0679771 0.099224 0.317 4 8 1
0.0687801 0.099224 0.317 3 7 0
0.0695832 0.099224 0.317 4 8 1
0.0703862 0.099224 0.317 4 8 1
0.0709646 0.098911 0.316 3 7 0
0.0717651 0.098911 0.316 3 7 0
0.0725656 0.098911 0.316 3 7 0
0.073134 0.0985979 0.315 3 7 0
0.0739319 0.0985979 0.315 6 10 3
0.0747299 0.0985979 0.315 4 8 1
0.0752881 0.0982849 0.314 6 10 3
0.0760835 0.0982849 0.314 6 10 3
0.0768789 0.0982849 0.314 6 10 3
0.0776743 0.0982849 0.314 4 8 1
0.0784698 0.0982849 0.314 4 8 1
0.0792652 0.0982849 0.314 6 10 3
0.0800606 0.0982849 0.314 6 10 3
0.0808561 0.0982849 0.314 7 11 4
0.0816515 0.0982849 0.314 6 10 3
0.0824469 0.0982849 0.314 6 10 3
0.0832423 0.0982849 0.314 7 11 4
0.0840378 0.0982849 0.314 7 11 4
0.0848332 0.0982849 0.314 7 11 4
0.0853559 0.0979719 0.313 7 11 4
0.0861488 0.0979719 0.313 8 13 3
0.0995436 0.104545 0.334 65 37 20
0.10039 0.104545 0.334 69 41 22
0.101236 0.104545 0.334 75 42 25
0.101776 0.104232 0.333 56 23 6
0.10262 0.104232 0.333 58 25 8
0.103463 0.104232 0.333 81 46 29
0.104307 0.104232 0.333 77 43 23
0.104835 0.103919 0.332 77 43 23
0.105357 0.103606 0.331 78 44 24
0.106196 0.103606 0.331 80 46 26
0.107034 0.103606 0.331 76 44 24
0.107547 0.103293 0.33 75 43 23
0.108383 0.103293 0.33 76 44 24
0.109219 0.103293 0.33 73 41 21
0.109721 0.10298 0.329 65 33 13
0.110219 0.102667 0.328 73 43 25
0.11105 0.102667 0.328 73 43 25
0.112024 0.102041 0.326 71 41 23
0.112504 0.101728 0.325 74 44 26
0.113327 0.101728 0.325 79 46 29
0.113799 0.101415 0.324 77 44 27
0.114266 0.101102 0.323 76 43 26
0.115084 0.101102 0.323 75 42 25
0.115544 0.100789 0.322 75 42 25
0.116359 0.100789 0.322 57 27 9
0.116811 0.100476 0.321 76 46 30
0.117258 0.100163 0.32 87 57 41
0.118069 0.100163 0.32 75 45 29
0.118508 0.09985 0.319 76 43 26
0.119316 0.09985 0.319 79 44 27
0.119747 0.099537 0.318 85 50 33
0.120174 0.099224 0.317 86 52 32
0.120977 0.099224 0.317 88 54 34
0.12178 0.099224 0.317 89 55 35
0.122196 0.098911 0.316 89 53 34
0.122607 0.0985979 0.315 90 54 35
0.123014 0.0982849 0.314 92 56 37
0.123809 0.0982849 0.314 92 56 35
0.124605 0.0982849 0.314 93 57 36
0.125001 0.0979719 0.313 99 63 42
0.125793 0.0979719 0.313 99 63 42
0.126586 0.0979719 0.313 97 61 40
0.126972 0.0976589 0.312 99 63 40
0.127763 0.0976589 0.312 97 61 38
0.128141 0.0973459 0.311 96 60 37
0.128929 0.0973459 0.311 98 59 37
0.129717 0.0973459 0.311 99 60 38
0.130085 0.0970329 0.31 99 60 38
0.13087 0.0970329 0.31 99 60 38
0.131231 0.0967199 0.309 101 62 40
0.132013 0.0967199 0.309 102 63 41
0.132796 0.0967199 0.309 102 63 41
0.133147 0.0964069 0.308 103 64 42
0.133927 0.0964069 0.308 105 64 43
0.13427 0.0960939 0.307 104 63 42
0.135048 0.0960939 0.307 103 62 41
0.135825 0.0960939 0.307 105 64 45
0.136603 0.0960939 0.307 104 63 44
0.137381 0.0960939 0.307 103 62 43
0.137708 0.0957809 0.306 105 64 45
0.138483 0.0957809 0.306 105 64 45
0.139259 0.0957809 0.306 103 62 43
0.140034 0.0957809 0.306 104 63 44
0.140809 0.0957809 0.306 103 62 43
0.141584 0.0957809 0.306 104 63 44
0.142359 0.0957809 0.306 104 63 42
0.143134 0.0957809 0.306 103 62 41
0.14391 0.0957809 0.306 102 62 38
0.144685 0.0957809 0.306 102 62 38
0.144984 0.0954678 0.305 102 62 38
0.146235 0.0957809 0.306 102 62 38
0.14653 0.0954678 0.305 103 62 41
0.147302 0.0954678 0.305 103 62 41
0.148075 0.0954678 0.305 102 61 40
0.149336 0.0957809 0.306 103 62 41
0.150111 0.0957809 0.306 100 59 40
0.150886 0.0957809 0.306 102 61 42
0.151661 0.0957809 0.306 103 62 43
0.152436 0.0957809 0.306 102 61 42
0.153211 0.0957809 0.306 99 58 39
0.153987 0.0957809 0.306 99 58 41
0.154762 0.0957809 0.306 98 57 40
0.156045 0.0960939 0.307 97 56 37
0.156823 0.0960939 0.307 98 57 38
0.158114 0.0964069 0.308 95 54 35
0.158894 0.0964069 0.308 95 54 35
0.159674 0.0964069 0.308 96 57 37
0.160976 0.0967199 0.309 97 58 38
0.161758 0.0967199 0.309 98 59 39
0.163593 0.0973459 0.311 91 52 32
0.164381 0.0973459 0.311 92 53 33
0.1657 0.0976589 0.312 92 53 35
0.167024 0.0979719 0.313 94 55 37
0.168353 0.0982849 0.314 96 56 41
0.170226 0.098911 0.316 97 60 44
0.171567 0.099224 0.317 102 65 49
0.172371 0.099224 0.317 102 65 49
0.17372 0.099537 0.318 101 64 48
0.175074 0.09985 0.319 105 68 52
0.176434 0.100163 0.32 101 64 48
0.177244 0.100163 0.32 101 64 48
0.178611 0.100476 0.321 101 66 49
0.179425 0.100476 0.321 102 67 50
0.180799 0.100789 0.322 104 69 52
0.182179 0.101102 0.323 102 67 50
0.182997 0.101102 0.323 111 76 59
0.184384 0.101415 0.324 112 79 64
0.185205 0.101415 0.324 108 75 60
0.606185 0.323339 1.033 167 167 161
0.609391 0.323652 1.034 167 167 161
0.611419 0.323339 1.033 166 166 160
0.614036 0.323339 1.033 168 168 162
0.616652 0.323339 1.033 168 168 162
0.619269 0.323339 1.033 166 166 160
0.621886 0.323339 1.033 168 165 160
0.623898 0.323026 1.032 172 169 164
0.62712 0.323339 1.033 170 170 164
0.629736 0.323339 1.033 168 168 162
0.631741 0.323026 1.032 166 166 160
0.633741 0.322713 1.031 165 165 159
0.636352 0.322713 1.031 167 167 161
0.638964 0.322713 1.031 166 166 160
0.641576 0.322713 1.031 167 167 161
0.643563 0.3224 1.03 163 163 157
0.646172 0.3224 1.03 170 170 164
0.648781 0.3224 1.03 168 168 162
0.650758 0.322087 1.029 168 168 162
0.65273 0.321774 1.028 166 166 160
0.655334 0.321774 1.028 165 165 159
0.656658 0.321148 1.026 166 166 160
0.658614 0.320835 1.025 168 168 162
0.659276 0.319896 1.022 168 168 162
0.659274 0.318643 1.018 168 168 162
0.659903 0.317704 1.015 167 167 161
0.65921 0.316139 1.01 170 167 162
0.659803 0.3152 1.007 171 168 163
0.661039 0.314574 1.005 170 167 162
0.662264 0.313948 1.003 168 168 162
0.664142 0.313635 1.002 168 168 162
0.66668 0.313635 1.002 166 166 160
0.669218 0.313635 1.002 166 166 160
0.671086 0.313322 1.001 166 166 160
0.672949 0.313009 1 166 166 160
0.674807 0.312696 0.999 166 166 160
0.675981 0.31207 0.997 165 165 159
0.677827 0.311757 0.996 172 169 164
0.678983 0.311131 0.994 169 166 161
0.678759 0.309879 0.99 168 165 160
0.679891 0.309253 0.988 168 165 160
0.679631 0.308001 0.984 169 166 161
0.680044 0.307062 0.981 167 167 161
0.681137 0.306436 0.979 165 165 159
0.682221 0.30581 0.977 163 163 157
0.683995 0.305497 0.976 163 163 157
0.686467 0.305497 0.976 166 166 160
0.688234 0.305184 0.975 170 167 162
0.689995 0.304871 0.974 168 165 160
0.692463 0.304871 0.974 168 165 160
0.694216 0.304558 0.973 169 166 161
0.696681 0.304558 0.973 169 166 161
0.699146 0.304558 0.973 168 165 160
0.70089 0.304245 0.972 168 165 160
0.702628 0.303932 0.971 169 166 161
0.704362 0.303619 0.97 167 164 159
0.706091 0.303306 0.969 167 164 159
0.707083 0.30268 0.967 166 166 160
0.707331 0.301741 0.964 166 166 160
0.709037 0.301428 0.963 168 168 162
0.709999 0.300802 0.961 168 168 162
0.710209 0.299863 0.958 166 166 160
0.711148 0.299237 0.956 165 165 159
0.712824 0.298924 0.955 168 168 162
0.713745 0.298298 0.953 169 169 163
0.715407 0.297985 0.952 168 168 162
0.717819 0.297985 0.952 167 167 161
0.718718 0.297359 0.95 166 166 160
0.721124 0.297359 0.95 169 169 163
0.722769 0.297046 0.949 167 167 161
0.725173 0.297046 0.949 166 166 160
0.727577 0.297046 0.949 167 164 159
0.728443 0.29642 0.947 168 165 160
0.73007 0.296107 0.946 168 165 162
0.732466 0.296107 0.946 168 165 162
0.733309 0.295481 0.944 168 165 162
0.734921 0.295168 0.943 169 166 161
0.734964 0.294229 0.94 170 167 162
0.737346 0.294229 0.94 171 168 163
0.737366 0.29329 0.937 168 165 160
0.738161 0.292664 0.935 169 166 161
0.739737 0.292351 0.934 168 165 160
0.741309 0.292038 0.933 169 166 161
0.742875 0.291725 0.932 169 166 163
0.745236 0.291725 0.932 168 165 162
0.746795 0.291412 0.931 167 164 161
0.749153 0.291412 0.931 167 164 161
0.0255479 0.111071 0.352 17 19 10
0.0264396 0.111071 0.352 15 17 6
0.0273313 0.111071 0.352 16 17 6
0.028223 0.111071 0.352 16 17 6
0.0291147 0.111071 0.352 16 17 6
0.0300064 0.111071 0.352 17 18 7
0.0308981 0.111071 0.352 20 21 10
0.0317897 0.111071 0.352 10 11 0
0.0326814 0.111071 0.352 10 11 2
0.0335731 0.111071 0.352 9 10 1
0.0344648 0.111071 0.352 9 11 2
0.0353565 0.111071 0.352 10 12 3
0.0433687 0.106653 0.338 9 10 4
0.0440941 0.106338 0.337 9 13 6
0.0475015 0.104445 0.331 7 11 4
0.048194 0.104129 0.33 7 11 4
0.0487328 0.103498 0.328 6 10 3
0.0495637 0.103498 0.328 6 10 3
0.0502409 0.103182 0.327 6 10 3
0.0509131 0.102867 0.326 6 10 3
0.0517389 0.102867 0.326 6 10 3
0.0525647 0.102867 0.326 4 8 1
0.0532268 0.102551 0.325 6 10 3
0.0540501 0.102551 0.325 6 10 3
0.0548734 0.102551 0.325 6 10 3
0.0555253 0.102236 0.324 7 11 4
0.0563461 0.102236 0.324 7 11 4
0.0569904 0.10192 0.323 7 11 4
0.0576296 0.101605 0.322 7 11 4
0.0584453 0.101605 0.322 8 12 5
0.059077 0.101289 0.321 7 11 4
0.0598901 0.101289 0.321 6 10 3
0.0605142 0.100974 0.32 4 8 1
0.0613248 0.100974 0.32 7 11 4
0.0619413 0.100658 0.319 7 11 4
0.0627493 0.100658 0.319 4 8 1
0.0635574 0.100658 0.319 7 11 4
0.0643655 0.100658 0.319 9 13 6
0.0649693 0.100343 0.318 7 11 4
0.0657749 0.100343 0.318 6 10 3
0.0665804 0.100343 0.318 6 10 3
0.0671741 0.100027 0.317 6 10 3
0.0679771 0.100027 0.317 6 10 3
0.0687801 0.100027 0.317 4 8 1
0.0695832 0.100027 0.317 6 10 3
0.0703862 0.100027 0.317 4 8 1
0.0711892 0.100027 0.317 4 8 1
0.0717651 0.0997114 0.316 4 8 1
0.0725656 0.0997114 0.316 4 8 1
0.0733661 0.0997114 0.316 4 8 1
0.0741666 0.0997114 0.316 6 10 3
0.0747299 0.0993959 0.315 6 10 3
0.0755278 0.0993959 0.315 7 11 4
0.0763258 0.0993959 0.315 6 10 3
0.0771238 0.0993959 0.315 6 10 3
0.0779217 0.0993959 0.315 3 7 0
0.0787197 0.0993959 0.315 4 8 1
0.0795176 0.0993959 0.315 6 10 3
0.0803156 0.0993959 0.315 6 10 3
0.0811136 0.0993959 0.315 7 11 4
0.0816515 0.0990804 0.314 6 10 3
0.0827095 0.0993959 0.315 7 11 4
0.0832423 0.0990804 0.314 7 11 4
0.0840378 0.0990804 0.314 7 11 4
0.0848332 0.0990804 0.314 8 12 5
0.0856286 0.0990804 0.314 8 12 5
0.0995436 0.105391 0.334 66 36 20
0.10039 0.105391 0.334 68 38 22
0.101236 0.105391 0.334 78 43 28
0.102082 0.105391 0.334 58 23 8
0.102928 0.105391 0.334 73 40 23
0.103463 0.105076 0.333 85 51 31
0.104307 0.105076 0.333 78 44 24
0.104835 0.10476 0.332 78 44 24
0.105676 0.10476 0.332 78 44 24
0.106196 0.104445 0.331 80 46 26
0.107034 0.104445 0.331 80 46 26
0.107873 0.104445 0.331 81 47 27
0.108383 0.104129 0.33 80 48 28
0.109219 0.104129 0.33 78 46 26
0.109721 0.103814 0.329 70 38 18
0.110219 0.103498 0.328 72 40 20
0.11105 0.103498 0.328 73 41 21
0.111539 0.103182 0.327 73 41 21
0.112024 0.102867 0.326 75 43 23
0.11285 0.102867 0.326 76 44 24
0.113327 0.102551 0.325 78 46 26
0.11415 0.102551 0.325 77 45 25
0.11462 0.102236 0.324 75 43 23
0.115084 0.10192 0.323 73 40 23
0.115903 0.10192 0.323 76 43 26
0.116359 0.101605 0.322 59 26 9
0.117175 0.101605 0.322 62 32 16
0.117624 0.101289 0.321 85 52 37
0.118438 0.101289 0.321 78 45 30
0.118879 0.100974 0.32 77 44 27
0.119316 0.100658 0.319 74 39 22
0.120124 0.100658 0.319 82 47 30
0.120553 0.100343 0.318 86 52 32
0.120977 0.100027 0.317 87 51 32
0.12178 0.100027 0.317 89 53 34
0.122196 0.0997114 0.316 89 53 34
0.122997 0.0997114 0.316 90 54 33
0.123405 0.0993959 0.315 90 54 33
0.123809 0.0990804 0.314 90 54 33
0.124605 0.0990804 0.314 90 54 33
0.1254 0.0990804 0.314 97 61 40
0.125793 0.0987648 0.313 97 61 40
0.126586 0.0987648 0.313 97 61 38
0.127379 0.0987648 0.313 100 64 41
0.127763 0.0984493 0.312 97 61 38
0.128553 0.0984493 0.312 99 63 40
0.128929 0.0981337 0.311 99 63 40
0.129717 0.0981337 0.311 99 60 38
0.130504 0.0981337 0.311 98 59 37
0.13087 0.0978182 0.31 101 62 40
0.131655 0.0978182 0.31 103 64 42
0.132013 0.0975026 0.309 103 64 42
0.132796 0.0975026 0.309 101 62 40
0.133579 0.0975026 0.309 102 63 41
0.133927 0.0971871 0.308 105 64 43
0.134707 0.0971871 0.308 105 64 45
0.135487 0.0971871 0.308 104 63 44
0.135825 0.0968716 0.307 104 63 44
0.136603 0.0968716 0.307 104 63 44
0.137381 0.0968716 0.307 102 61 42
0.138158 0.0968716 0.307 104 63 44
0.138936 0.0968716 0.307 103 62 43
0.139714 0.0968716 0.307 102 61 42
0.140491 0.0968716 0.307 100 59 40
0.140809 0.096556 0.306 102 61 42
0.141584 0.096556 0.306 102 61 42
0.142359 0.096556 0.306 102 61 42
0.143134 0.096556 0.306 102 61 40
0.14391 0.096556 0.306 102 61 40
0.144685 0.096556 0.306 102 62 38
0.14546 0.096556 0.306 102 62 38
0.146235 0.096556 0.306 100 60 36
0.14701 0.096556 0.306 98 57 36
0.147785 0.096556 0.306 99 58 37
0.148561 0.096556 0.306 98 57 38
0.149336 0.096556 0.306 99 58 39
0.150111 0.096556 0.306 100 59 40
0.150886 0.096556 0.306 99 58 39
0.151661 0.096556 0.306 95 54 35
0.152436 0.096556 0.306 98 57 38
0.153712 0.0968716 0.307 100 59 42
0.15449 0.0968716 0.307 97 56 39
0.155268 0.0968716 0.307 100 59 42
0.156045 0.0968716 0.307 97 56 37
0.157334 0.0971871 0.308 97 56 37
0.158114 0.0971871 0.308 98 59 39
0.158894 0.0971871 0.308 97 58 38
0.160193 0.0975026 0.309 96 57 37
0.160976 0.0975026 0.309 94 55 35
0.162282 0.0978182 0.31 95 56 38
0.163593 0.0981337 0.311 95 56 38
0.16491 0.0984493 0.312 91 52 34
0.166231 0.0987648 0.313 89 50 32
0.167558 0.0990804 0.314 106 67 49
0.168889 0.0993959 0.315 101 64 48
0.170226 0.0997114 0.316 101 64 48
0.171567 0.100027 0.317 101 64 48
0.172914 0.100343 0.318 101 64 48
0.174266 0.100658 0.319 102 65 49
0.175074 0.100658 0.319 102 65 49
0.176434 0.100974 0.32 102 65 49
0.177244 0.100974 0.32 103 68 51
0.178611 0.101289 0.321 104 69 52
0.179983 0.101605 0.322 104 69 52
0.180799 0.101605 0.322 106 71 54
0.182179 0.10192 0.323 106 71 54
0.182997 0.10192 0.323 99 64 49
0.184384 0.102236 0.324 114 81 66
0.185205 0.102236 0.324 113 80 65
0.608802 0.325955 1.033 166 166 160
0.611419 0.325955 1.033 167 167 161
0.614036 0.325955 1.033 167 167 161
0.616652 0.325955 1.033 166 166 160
0.619269 0.325955 1.033 168 165 160
0.621886 0.325955 1.033 168 165 160
0.624503 0.325955 1.033 170 167 162
0.62712 0.325955 1.033 169 169 163
0.629127 0.32564 1.032 169 169 163
0.631741 0.32564 1.032 166 166 160
0.633741 0.325324 1.031 165 165 159
0.636352 0.325324 1.031 167 167 161
0.638964 0.325324 1.031 166 166 160
0.641576 0.325324 1.031 166 166 160
0.643563 0.325009 1.03 162 162 156
0.646172 0.325009 1.03 165 165 159
0.648781 0.325009 1.03 166 166 160
0.650758 0.324693 1.029 166 166 160
0.653365 0.324693 1.029 166 166 160
0.655334 0.324378 1.028 165 165 159
0.657298 0.324062 1.027 166 166 160
0.658614 0.323431 1.025 166 166 160
0.659921 0.3228 1.023 165 165 159
0.659274 0.321222 1.018 167 167 161
0.659903 0.320276 1.015 168 168 162
0.65921 0.318698 1.01 168 165 160
0.659803 0.317751 1.007 167 164 159
0.661039 0.31712 1.005 169 166 161
0.662264 0.316489 1.003 167 167 161
0.664142 0.316174 1.002 167 167 161
0.66668 0.316174 1.002 168 168 162
0.669218 0.316174 1.002 167 167 161
0.671086 0.315858 1.001 165 165 159
0.672949 0.315543 1 166 166 160
0.674807 0.315227 0.999 167 167 161
0.676659 0.314911 0.998 167 167 161
0.678507 0.314596 0.997 163 163 157
0.678983 0.313649 0.994 163 163 157
0.68013 0.313018 0.992 165 165 159
0.679891 0.311756 0.988 166 166 160
0.681012 0.311125 0.986 166 166 160
0.680737 0.309863 0.982 166 166 160
0.681833 0.309232 0.98 165 165 159
0.683617 0.308916 0.979 166 166 160
0.684696 0.308285 0.977 163 163 157
0.686467 0.30797 0.976 166 166 160
0.688234 0.307654 0.975 168 165 160
0.690704 0.307654 0.975 168 165 160
0.692463 0.307338 0.974 168 165 160
0.694216 0.307023 0.973 168 165 160
0.696681 0.307023 0.973 170 167 162
0.699146 0.307023 0.973 169 166 161
0.70089 0.306707 0.972 167 164 159
0.702628 0.306392 0.971 167 164 159
0.704362 0.306076 0.97 167 164 159
0.706091 0.305761 0.969 167 164 159
0.707083 0.30513 0.967 166 166 160
0.707331 0.304183 0.964 168 168 162
0.709037 0.303867 0.963 169 169 163
0.709999 0.303236 0.961 167 167 163
0.710209 0.30229 0.958 167 167 163
0.711148 0.301659 0.956 167 167 163
0.712824 0.301343 0.955 168 168 164
0.713745 0.300712 0.953 167 167 163
0.715407 0.300397 0.952 168 168 164
0.717819 0.300397 0.952 168 168 164
0.718718 0.299765 0.95 165 165 161
0.721124 0.299765 0.95 168 168 164
0.722769 0.29945 0.949 168 168 162
0.725173 0.29945 0.949 168 168 162
0.727577 0.29945 0.949 170 167 162
0.729212 0.299134 0.948 170 167 162
0.73007 0.298503 0.946 167 164 161
0.732466 0.298503 0.946 167 164 161
0.734086 0.298188 0.945 167 164 161
0.734921 0.297557 0.943 169 166 161
0.736528 0.297241 0.942 172 169 164
0.737346 0.29661 0.94 172 169 164
0.737366 0.295663 0.937 169 166 161
0.73974 0.295663 0.937 168 165 160
0.739737 0.294717 0.934 168 165 160
0.741309 0.294401 0.933 165 162 157
0.742875 0.294086 0.932 165 162 159
0.745236 0.294086 0.932 165 162 159
0.746795 0.29377 0.931 167 164 161
0.749958 0.294086 0.932 165 162 159
0.0256205 0.112281 0.353 18 19 8
0.0265147 0.112281 0.353 18 19 8
0.027409 0.112281 0.353 18 16 6
0.0283032 0.112281 0.353 14 12 0
0.0291974 0.112281 0.353 13 14 1
0.0300916 0.112281 0.353 11 12 0
0.0308981 0.111963 0.352 11 12 0
0.0318801 0.112281 0.353 11 12 1
0.0326814 0.111963 0.352 10 11 2
0.0336685 0.112281 0.353 10 11 2
0.0344648 0.111963 0.352 10 12 3
0.0353565 0.111963 0.352 10 12 3
0.0425125 0.10751 0.338 8 9 3
0.0433687 0.10751 0.338 9 10 4
0.0440941 0.107192 0.337 12 13 7
0.0449478 0.107192 0.337 10 14 7
0.0456656 0.106873 0.336 9 13 6
0.0488813 0.104647 0.329 6 10 3
0.0495637 0.104329 0.328 7 11 4
0.0503946 0.104329 0.328 6 10 3
0.0509131 0.103693 0.326 6 10 3
0.0517389 0.103693 0.326 7 11 4
0.0525647 0.103693 0.326 6 10 3
0.0532268 0.103375 0.325 4 8 1
0.0540501 0.103375 0.325 4 8 1
0.0548734 0.103375 0.325 6 10 3
0.0556967 0.103375 0.325 6 10 5
0.0563461 0.103057 0.324 7 11 6
0.0569904 0.102738 0.323 7 11 4
0.0578086 0.102738 0.323 7 11 4
0.0584453 0.10242 0.322 8 12 5
0.059261 0.10242 0.322 7 11 4
0.0598901 0.102102 0.321 4 8 1
0.0605142 0.101784 0.32 6 10 3
0.0613248 0.101784 0.32 7 11 4
0.0621354 0.101784 0.32 6 10 3
0.0627493 0.101466 0.319 3 7 0
0.0635574 0.101466 0.319 6 10 3
0.0643655 0.101466 0.319 8 12 5
0.0651736 0.101466 0.319 7 11 4
0.0657749 0.101148 0.318 6 10 3
0.0665804 0.101148 0.318 6 10 3
0.067386 0.101148 0.318 6 10 3
0.0681916 0.101148 0.318 4 8 1
0.0687801 0.10083 0.317 3 7 0
0.0695832 0.10083 0.317 6 10 3
0.0703862 0.10083 0.317 4 8 1
0.0711892 0.10083 0.317 4 8 1
0.0719922 0.10083 0.317 4 8 1
0.0727953 0.10083 0.317 3 7 0
0.0733661 0.100512 0.316 6 10 3
0.0741666 0.100512 0.316 4 8 1
0.0749671 0.100512 0.316 6 10 3
0.0757676 0.100512 0.316 6 10 3
0.0763258 0.100194 0.315 6 10 3
0.0771238 0.100194 0.315 4 8 1
0.0779217 0.100194 0.315 3 7 0
0.0787197 0.100194 0.315 4 8 1
0.0795176 0.100194 0.315 6 10 3
0.0803156 0.100194 0.315 6 10 3
0.0811136 0.100194 0.315 7 11 4
0.0819115 0.100194 0.315 6 10 3
0.0827095 0.100194 0.315 7 11 4
0.0835074 0.100194 0.315 7 11 4
0.0843054 0.100194 0.315 8 12 5
0.0848332 0.0998758 0.314 8 12 5
0.0856286 0.0998758 0.314 9 14 4
0.0872195 0.0998758 0.314 20 21 10
0.0995436 0.106237 0.334 67 37 21
0.10039 0.106237 0.334 67 37 21
0.101236 0.106237 0.334 78 42 30
0.102082 0.106237 0.334 59 23 11
0.102928 0.106237 0.334 71 38 21
0.103463 0.105919 0.333 83 51 31
0.104307 0.105919 0.333 76 44 24
0.10515 0.105919 0.333 76 44 24
0.105676 0.105601 0.332 76 44 24
0.106196 0.105283 0.331 76 44 24
0.107034 0.105283 0.331 77 45 25
0.107873 0.105283 0.331 79 47 27
0.108711 0.105283 0.331 78 46 26
0.109219 0.104965 0.33 77 45 25
0.110055 0.104965 0.33 75 43 23
0.110555 0.104647 0.329 71 39 19
0.11105 0.104329 0.328 73 41 21
0.111881 0.104329 0.328 77 45 25
0.112368 0.104011 0.327 76 44 24
0.11285 0.103693 0.326 78 46 26
0.113327 0.103375 0.325 78 46 26
0.11415 0.103375 0.325 78 46 26
0.114974 0.103375 0.325 77 45 25
0.115441 0.103057 0.324 78 46 26
0.115903 0.102738 0.323 80 48 28
0.116721 0.102738 0.323 65 32 15
0.117175 0.10242 0.322 62 29 12
0.117991 0.10242 0.322 81 46 31
0.118438 0.102102 0.321 85 50 35
0.119251 0.102102 0.321 78 43 26
0.11969 0.101784 0.32 77 42 25
0.120124 0.101466 0.319 82 47 30
0.120932 0.101466 0.319 85 51 31
0.12174 0.101466 0.319 85 51 31
0.122164 0.101148 0.318 91 57 37
0.122583 0.10083 0.317 87 53 33
0.123386 0.10083 0.317 87 51 30
0.123797 0.100512 0.316 87 51 30
0.124203 0.100194 0.315 89 53 32
0.124605 0.0998758 0.314 90 54 33
0.1254 0.0998758 0.314 90 54 33
0.126195 0.0998758 0.314 97 61 38
0.126586 0.0995577 0.313 96 60 37
0.127379 0.0995577 0.313 96 60 37
0.128172 0.0995577 0.313 97 61 38
0.128553 0.0992396 0.312 95 59 36
0.129343 0.0992396 0.312 97 61 38
0.129717 0.0989216 0.311 98 59 37
0.130504 0.0989216 0.311 98 59 37
0.131292 0.0989216 0.311 99 60 38
0.131655 0.0986035 0.31 99 60 38
0.132441 0.0986035 0.31 101 62 40
0.132796 0.0982854 0.309 99 60 38
0.133579 0.0982854 0.309 98 59 39
0.134362 0.0982854 0.309 100 59 40
0.134707 0.0979673 0.308 104 63 44
0.135487 0.0979673 0.308 103 62 43
0.136268 0.0979673 0.308 103 62 43
0.137048 0.0979673 0.308 102 61 42
0.137828 0.0979673 0.308 102 61 42
0.138158 0.0976493 0.307 103 62 43
0.138936 0.0976493 0.307 103 62 43
0.139714 0.0976493 0.307 102 61 42
0.140491 0.0976493 0.307 100 59 40
0.141269 0.0976493 0.307 99 58 39
0.142047 0.0976493 0.307 98 57 38
0.142824 0.0976493 0.307 99 58 39
0.143602 0.0976493 0.307 100 56 36
0.14391 0.0973312 0.306 91 47 27
0.144685 0.0973312 0.306 91 47 27
0.14546 0.0973312 0.306 95 51 31
0.146235 0.0973312 0.306 99 55 35
0.14701 0.0973312 0.306 99 55 37
0.147785 0.0973312 0.306 97 56 37
0.148561 0.0973312 0.306 97 56 37
0.149336 0.0973312 0.306 96 55 36
0.150111 0.0973312 0.306 97 56 37
0.150886 0.0973312 0.306 97 56 37
0.152157 0.0976493 0.307 96 55 36
0.152934 0.0976493 0.307 96 55 36
0.153712 0.0976493 0.307 97 56 37
0.15449 0.0976493 0.307 95 54 35
0.155268 0.0976493 0.307 99 58 39
0.156554 0.0979673 0.308 97 56 37
0.157334 0.0979673 0.308 96 55 36
0.158627 0.0982854 0.309 92 51 32
0.15941 0.0982854 0.309 97 56 37
0.160193 0.0982854 0.309 96 57 37
0.161497 0.0986035 0.31 92 53 33
0.162805 0.0989216 0.311 94 55 37
0.164119 0.0992396 0.312 95 56 38
0.165438 0.0995577 0.313 92 53 35
0.166762 0.0998758 0.314 94 58 39
0.167558 0.0998758 0.314 100 64 45
0.169425 0.100512 0.316 100 64 45
0.170764 0.10083 0.317 99 63 44
0.171567 0.10083 0.317 101 64 48
0.172914 0.101148 0.318 101 64 48
0.174266 0.101466 0.319 103 66 50
0.175623 0.101784 0.32 101 64 48
0.176434 0.101784 0.32 102 65 49
0.177798 0.102102 0.321 101 66 49
0.178611 0.102102 0.321 104 69 52
0.179983 0.10242 0.322 108 73 56
0.180799 0.10242 0.322 107 72 55
0.182179 0.102738 0.323 106 71 54
0.183564 0.103057 0.324 104 69 54
0.184384 0.103057 0.324 115 80 65
0.185777 0.103375 0.325 119 86 71
0.606185 0.328572 1.033 168 169 160
0.608802 0.328572 1.033 168 169 160
0.611419 0.328572 1.033 165 166 157
0.614036 0.328572 1.033 166 167 158
0.616652 0.328572 1.033 167 168 159
0.619269 0.328572 1.033 165 166 157
0.621886 0.328572 1.033 165 166 157
0.624503 0.328572 1.033 168 169 160
0.62712 0.328572 1.033 168 169 160
0.629736 0.328572 1.033 166 167 158
0.631741 0.328254 1.032 162 162 156
0.633741 0.327936 1.031 166 166 160
0.636352 0.327936 1.031 166 166 160
0.638964 0.327936 1.031 166 166 160
0.641576 0.327936 1.031 168 168 162
0.643563 0.327618 1.03 168 168 162
0.646172 0.327618 1.03 168 168 162
0.648781 0.327618 1.03 168 168 162
0.650758 0.3273 1.029 168 168 162
0.653365 0.3273 1.029 169 169 163
0.655334 0.326982 1.028 165 165 159
0.657298 0.326664 1.027 166 166 160
0.658614 0.326028 1.025 167 167 161
0.659921 0.325392 1.023 166 166 160
0.659274 0.323801 1.018 166 166 160
0.659903 0.322847 1.015 166 166 160
0.65921 0.321256 1.01 166 166 160
0.659803 0.320302 1.007 166 166 160
0.661039 0.319666 1.005 165 165 159
0.662264 0.31903 1.003 165 165 159
0.664142 0.318712 1.002 165 165 159
0.66668 0.318712 1.002 166 166 160
0.668551 0.318394 1.001 167 167 161
0.671086 0.318394 1.001 167 167 161
0.672949 0.318076 1 166 166 160
0.674807 0.317758 0.999 163 163 157
0.676659 0.31744 0.998 163 163 157
0.678507 0.317122 0.997 167 167 161
0.68035 0.316803 0.996 166 166 160
0.68013 0.315531 0.992 166 166 160
0.680579 0.314577 0.989 166 166 160
0.681703 0.313941 0.987 165 165 159
0.68143 0.312668 0.983 166 166 160
0.682529 0.312032 0.981 167 167 161
0.683617 0.311396 0.979 163 163 157
0.684696 0.31076 0.977 163 163 157
0.686467 0.310442 0.976 168 165 160
0.688234 0.310124 0.975 173 173 167
0.690704 0.310124 0.975 173 173 167
0.692463 0.309806 0.974 168 168 162
0.69493 0.309806 0.974 168 168 162
0.696681 0.309488 0.973 168 168 162
0.699146 0.309488 0.973 167 167 161
0.70089 0.30917 0.972 172 169 164
0.703352 0.30917 0.972 171 168 163
0.704362 0.308533 0.97 171 168 163
0.706091 0.308215 0.969 172 169 164
0.707083 0.307579 0.967 163 163 157
0.707331 0.306625 0.964 167 167 161
0.709773 0.306625 0.964 169 169 163
0.709999 0.305671 0.961 163 163 157
0.710209 0.304717 0.958 166 166 160
0.711148 0.30408 0.956 167 167 161
0.712824 0.303762 0.955 167 167 161
0.714494 0.303444 0.954 167 167 161
0.715407 0.302808 0.952 168 168 162
0.717819 0.302808 0.952 168 168 162
0.719474 0.30249 0.951 166 166 160
0.721124 0.302172 0.95 168 168 162
0.722769 0.301854 0.949 167 167 161
0.725173 0.301854 0.949 168 168 162
0.727577 0.301854 0.949 171 168 163
0.729212 0.301536 0.948 170 167 162
0.730842 0.301218 0.947 168 165 162
0.732466 0.3009 0.946 171 168 165
0.734086 0.300582 0.945 171 168 165
0.735701 0.300264 0.944 171 168 163
0.736528 0.299627 0.942 170 167 162
0.737346 0.298991 0.94 171 168 163
0.737366 0.298037 0.937 171 168 163
0.73974 0.298037 0.937 168 165 160
0.739737 0.297083 0.934 168 165 160
0.741309 0.296765 0.933 168 165 160
0.743672 0.296765 0.933 167 164 161
0.745236 0.296447 0.932 164 161 158
0.746795 0.296129 0.931 167 164 161
0.749958 0.296447 0.932 165 162 159
0.0265147 0.113175 0.353 23 15 1
0.027409 0.113175 0.353 25 17 3
0.0283032 0.113175 0.353 37 34 18
0.0291974 0.113175 0.353 39 38 23
0.0300916 0.113175 0.353 29 27 15
0.0309858 0.113175 0.353 22 20 8
0.0318801 0.113175 0.353 12 13 2
0.0327743 0.113175 0.353 11 12 3
0.0336685 0.113175 0.353 10 11 2
0.0345627 0.113175 0.353 9 11 2
0.0416563 0.108366 0.338 8 9 3
0.0425125 0.108366 0.338 8 9 3
0.0433687 0.108366 0.338 11 12 6
0.044225 0.108366 0.338 9 13 6
0.0449478 0.108045 0.337 10 14 7
0.0458015 0.108045 0.337 9 13 6
0.0465167 0.107725 0.336 7 11 4
0.047086 0.107083 0.334 7 11 4
0.0497148 0.10548 0.329 6 10 3
0.0503946 0.10516 0.328 6 10 3
0.0512254 0.10516 0.328 7 11 4
0.0518976 0.104839 0.327 7 11 4
0.0525647 0.104519 0.326 7 11 4
0.0533906 0.104519 0.326 6 10 3
0.0540501 0.104198 0.325 6 10 3
0.0548734 0.104198 0.325 6 10 3
0.0556967 0.104198 0.325 7 11 4
0.0563461 0.103877 0.324 7 11 4
0.0569904 0.103557 0.323 7 11 4
0.0578086 0.103557 0.323 7 11 4
0.0584453 0.103236 0.322 7 11 4
0.059261 0.103236 0.322 7 11 4
0.0598901 0.102915 0.321 4 8 1
0.0607033 0.102915 0.321 6 10 3
0.0613248 0.102595 0.32 6 10 3
0.0621354 0.102595 0.32 6 10 3
0.0629461 0.102595 0.32 4 8 1
0.0635574 0.102274 0.319 7 11 4
0.0643655 0.102274 0.319 7 11 4
0.0651736 0.102274 0.319 6 10 3
0.0659817 0.102274 0.319 3 7 0
0.0667898 0.102274 0.319 4 8 1
0.067386 0.101954 0.318 4 8 1
0.0681916 0.101954 0.318 4 8 1
0.0689971 0.101954 0.318 6 10 3
0.0695832 0.101633 0.317 6 10 5
0.0703862 0.101633 0.317 4 8 3
0.0711892 0.101633 0.317 3 7 2
0.0719922 0.101633 0.317 4 8 3
0.0727953 0.101633 0.317 6 10 5
0.0735983 0.101633 0.317 3 7 2
0.0744013 0.101633 0.317 4 8 3
0.0749671 0.101312 0.316 6 10 5
0.0757676 0.101312 0.316 6 10 5
0.0765681 0.101312 0.316 6 10 5
0.0773686 0.101312 0.316 3 7 0
0.0781691 0.101312 0.316 4 8 1
0.0789696 0.101312 0.316 4 8 1
0.0797701 0.101312 0.316 6 10 3
0.0805706 0.101312 0.316 7 11 4
0.0813711 0.101312 0.316 6 10 3
0.0821716 0.101312 0.316 6 10 3
0.082972 0.101312 0.316 8 12 5
0.0837725 0.101312 0.316 7 11 4
0.084573 0.101312 0.316 7 11 4
0.098993 0.107404 0.335 78 48 32
0.0998416 0.107404 0.335 70 40 24
0.10039 0.107083 0.334 68 38 22
0.101236 0.107083 0.334 75 45 29
0.102082 0.107083 0.334 56 26 10
0.102928 0.107083 0.334 71 38 23
0.103774 0.107083 0.334 84 51 34
0.104307 0.106763 0.333 79 47 27
0.10515 0.106763 0.333 76 44 24
0.105994 0.106763 0.333 77 45 25
0.106517 0.106442 0.332 79 47 27
0.107034 0.106122 0.331 80 48 28
0.107873 0.106122 0.331 80 48 28
0.108711 0.106122 0.331 78 46 26
0.10955 0.106122 0.331 78 46 26
0.110055 0.105801 0.33 72 40 20
0.110891 0.105801 0.33 63 31 11
0.11105 0.10516 0.328 65 33 13
0.111881 0.10516 0.328 79 47 27
0.112711 0.10516 0.328 76 44 24
0.113196 0.104839 0.327 78 46 26
0.113676 0.104519 0.326 77 45 25
0.11415 0.104198 0.325 78 46 26
0.114974 0.104198 0.325 78 46 26
0.115797 0.104198 0.325 78 46 26
0.116261 0.103877 0.324 75 42 25
0.116721 0.103557 0.323 75 42 25
0.117539 0.103557 0.323 71 38 21
0.117991 0.103236 0.322 75 42 25
0.118807 0.103236 0.322 76 43 26
0.119622 0.103236 0.322 78 45 28
0.120064 0.102915 0.321 77 44 27
0.1205 0.102595 0.32 73 39 19
0.120932 0.102274 0.319 80 46 26
0.12174 0.102274 0.319 86 52 32
0.122548 0.102274 0.319 89 55 35
0.12297 0.101954 0.318 86 52 32
0.123386 0.101633 0.317 87 53 33
0.124189 0.101633 0.317 90 54 33
0.124598 0.101312 0.316 89 53 32
0.125001 0.100992 0.315 89 53 32
0.1254 0.100671 0.314 90 54 33
0.126195 0.100671 0.314 94 55 33
0.126991 0.100671 0.314 94 55 33
0.127786 0.100671 0.314 95 56 34
0.128172 0.100351 0.313 96 57 35
0.128965 0.100351 0.313 99 60 38
0.129343 0.10003 0.312 98 59 37
0.130134 0.10003 0.312 98 59 37
0.130924 0.10003 0.312 98 59 37
0.131292 0.0997094 0.311 101 62 40
0.13208 0.0997094 0.311 99 60 38
0.132441 0.0993888 0.31 101 62 40
0.133226 0.0993888 0.31 98 59 39
0.133579 0.0990682 0.309 98 59 39
0.134362 0.0990682 0.309 98 57 38
0.135145 0.0990682 0.309 99 58 39
0.135927 0.0990682 0.309 102 61 42
0.13671 0.0990682 0.309 102 61 42
0.137048 0.0987476 0.308 102 61 42
0.137828 0.0987476 0.308 100 59 40
0.138608 0.0987476 0.308 102 61 42
0.139389 0.0987476 0.308 102 61 42
0.140169 0.0987476 0.308 100 59 40
0.140949 0.0987476 0.308 102 61 42
0.141729 0.0987476 0.308 99 58 39
0.142509 0.0987476 0.308 98 57 38
0.142824 0.098427 0.307 98 57 38
0.143602 0.098427 0.307 100 56 38
0.14438 0.098427 0.307 98 54 36
0.145158 0.098427 0.307 98 54 36
0.145935 0.098427 0.307 97 53 35
0.146713 0.098427 0.307 98 54 36
0.147491 0.098427 0.307 99 55 37
0.148268 0.098427 0.307 100 56 38
0.149046 0.098427 0.307 100 56 38
0.149824 0.098427 0.307 97 56 37
0.150601 0.098427 0.307 96 55 36
0.151379 0.098427 0.307 96 55 36
0.152157 0.098427 0.307 96 55 36
0.153433 0.0987476 0.308 97 56 37
0.154213 0.0987476 0.308 96 55 36
0.154993 0.0987476 0.308 95 54 35
0.155773 0.0987476 0.308 95 54 35
0.157062 0.0990682 0.309 96 55 36
0.157845 0.0990682 0.309 95 54 35
0.158627 0.0990682 0.309 90 51 31
0.15941 0.0990682 0.309 94 55 35
0.160711 0.0993888 0.31 96 57 37
0.162018 0.0997094 0.311 91 52 34
0.163329 0.10003 0.312 94 55 37
0.164645 0.100351 0.313 96 57 39
0.165967 0.100671 0.314 96 60 41
0.166762 0.100671 0.314 97 61 42
0.168091 0.100992 0.315 98 64 44
0.169425 0.101312 0.316 98 64 44
0.170764 0.101633 0.317 100 66 46
0.172109 0.101954 0.318 101 67 47
0.173458 0.102274 0.319 101 67 47
0.174266 0.102274 0.319 101 67 47
0.175623 0.102595 0.32 108 74 54
0.176434 0.102595 0.32 96 62 42
0.177798 0.102915 0.321 106 72 52
0.179168 0.103236 0.322 109 75 55
0.179983 0.103236 0.322 108 73 56
0.181361 0.103557 0.323 107 72 55
0.182179 0.103557 0.323 106 71 54
0.183564 0.103877 0.324 123 88 73
0.184384 0.103877 0.324 115 82 67
0.185777 0.104198 0.325 121 91 75
0.1866 0.104198 0.325 121 91 75
0.188 0.104519 0.326 125 96 82
0.606185 0.331189 1.033 167 168 159
0.608802 0.331189 1.033 167 168 159
0.611419 0.331189 1.033 168 169 160
0.61463 0.33151 1.034 165 166 157
0.616652 0.331189 1.033 166 167 158
0.619269 0.331189 1.033 165 166 157
0.621886 0.331189 1.033 166 167 158
0.624503 0.331189 1.033 168 169 160
0.62712 0.331189 1.033 167 168 159
0.629736 0.331189 1.033 166 167 158
0.631741 0.330868 1.032 162 163 154
0.634355 0.330868 1.032 167 168 159
0.636352 0.330548 1.031 166 167 158
0.638964 0.330548 1.031 166 167 158
0.641576 0.330548 1.031 166 167 158
0.643563 0.330227 1.03 167 168 159
0.646172 0.330227 1.03 163 164 155
0.648781 0.330227 1.03 169 170 161
0.650758 0.329907 1.029 168 169 160
0.65273 0.329586 1.028 168 169 160
0.655334 0.329586 1.028 168 169 160
0.657298 0.329265 1.027 167 168 159
0.658614 0.328624 1.025 167 168 159
0.659921 0.327983 1.023 166 167 158
0.659922 0.326701 1.019 166 167 158
0.660553 0.325739 1.016 163 164 155
0.659863 0.324136 1.011 168 168 162
0.659803 0.322853 1.007 167 167 161
0.661039 0.322212 1.005 165 165 159
0.662264 0.321571 1.003 165 165 159
0.664142 0.32125 1.002 166 166 160
0.66668 0.32125 1.002 166 166 160
0.668551 0.32093 1.001 166 166 160
0.671086 0.32093 1.001 167 167 161
0.672949 0.320609 1 165 165 159
0.674807 0.320288 0.999 166 166 160
0.676659 0.319968 0.998 166 166 160
0.678507 0.319647 0.997 167 167 161
0.68035 0.319327 0.996 167 167 161
0.681501 0.318685 0.994 163 163 157
0.681267 0.317403 0.99 165 165 159
0.682393 0.316762 0.988 165 165 159
0.68351 0.31612 0.986 166 166 160
0.683224 0.314838 0.982 166 166 160
0.683617 0.313876 0.979 167 167 161
0.685396 0.313556 0.978 165 165 159
0.687171 0.313235 0.977 166 166 160
0.688234 0.312594 0.975 168 168 162
0.690704 0.312594 0.975 167 167 161
0.692463 0.312273 0.974 168 168 162
0.69493 0.312273 0.974 167 167 161
0.696681 0.311953 0.973 166 166 160
0.699146 0.311953 0.973 167 167 161
0.70089 0.311632 0.972 168 165 160
0.703352 0.311632 0.972 169 166 161
0.704362 0.310991 0.97 169 166 161
0.706091 0.31067 0.969 169 166 161
0.707083 0.310029 0.967 163 163 157
0.708799 0.309708 0.966 166 166 160
0.709773 0.309067 0.964 167 167 163
0.709999 0.308105 0.961 163 163 159
0.71095 0.307464 0.959 168 168 164
0.712636 0.307143 0.958 168 168 164
0.712824 0.306182 0.955 165 165 161
0.714494 0.305861 0.954 168 168 164
0.716159 0.30554 0.953 168 168 164
0.717819 0.30522 0.952 166 166 162
0.720231 0.30522 0.952 166 166 162
0.721883 0.304899 0.951 167 167 163
0.723531 0.304579 0.95 168 168 164
0.725173 0.304258 0.949 169 169 165
0.727577 0.304258 0.949 168 168 164
0.729981 0.304258 0.949 167 167 163
0.730842 0.303617 0.947 162 162 158
0.732466 0.303296 0.946 167 167 163
0.734863 0.303296 0.946 169 169 165
0.735701 0.302655 0.944 169 169 165
0.736528 0.302014 0.942 165 165 161
0.737346 0.301372 0.94 166 166 162
0.737366 0.300411 0.937 165 165 161
0.73974 0.300411 0.937 170 170 166
0.740529 0.299769 0.935 165 165 161
0.741309 0.299128 0.933 166 166 162
0.743672 0.299128 0.933 167 167 163
0.746036 0.299128 0.933 166 166 162
0.747597 0.298808 0.932 165 165 161
0.749958 0.298808 0.932 163 163 159
0.0300916 0.114069 0.353 18 16 4
0.0309858 0.114069 0.353 23 21 9
0.0416563 0.109222 0.338 8 9 3
0.0425125 0.109222 0.338 9 10 4
0.0433687 0.109222 0.338 8 12 5
0.044225 0.109222 0.338 8 12 5
0.0449478 0.108899 0.337 8 12 5
0.0458015 0.108899 0.337 8 12 5
0.0465167 0.108576 0.336 6 10 3
0.0472269 0.108253 0.335 4 8 1
0.047932 0.107929 0.334 4 8 1
0.0505482 0.106314 0.329 6 10 3
0.0512254 0.105991 0.328 7 11 4
0.0520563 0.105991 0.328 7 11 4
0.052726 0.105667 0.327 7 11 4
0.0535543 0.105667 0.327 6 10 3
0.0542164 0.105344 0.326 6 10 3
0.0550422 0.105344 0.326 7 11 4
0.0556967 0.105021 0.325 7 11 4
0.05652 0.105021 0.325 6 10 3
0.0571668 0.104698 0.324 6 10 3
0.0578086 0.104375 0.323 6 10 3
0.0586268 0.104375 0.323 7 11 4
0.059261 0.104052 0.322 7 11 4
0.0600767 0.104052 0.322 6 10 3
0.0607033 0.103729 0.321 4 8 1
0.0615164 0.103729 0.321 4 8 1
0.0623296 0.103729 0.321 6 10 3
0.0629461 0.103406 0.32 6 10 3
0.0637567 0.103406 0.32 7 11 4
0.0645673 0.103406 0.32 7 11 4
0.0651736 0.103082 0.319 6 10 3
0.0659817 0.103082 0.319 3 7 0
0.0667898 0.103082 0.319 3 7 0
0.0675979 0.103082 0.319 3 7 0
0.068406 0.103082 0.319 4 8 1
0.0689971 0.102759 0.318 4 8 1
0.0698027 0.102759 0.318 3 7 2
0.0706082 0.102759 0.318 4 8 3
0.0711892 0.102436 0.317 3 7 2
0.0719922 0.102436 0.317 4 8 3
0.0727953 0.102436 0.317 6 10 5
0.0735983 0.102436 0.317 4 8 3
0.0744013 0.102436 0.317 4 8 3
0.0752044 0.102436 0.317 4 8 3
0.0760074 0.102436 0.317 4 8 3
0.0768104 0.102436 0.317 6 10 5
0.0776134 0.102436 0.317 3 7 2
0.0784165 0.102436 0.317 4 8 3
0.0792195 0.102436 0.317 4 8 3
0.0800225 0.102436 0.317 6 10 3
0.0808255 0.102436 0.317 7 11 4
0.0816286 0.102436 0.317 6 10 3
0.0824316 0.102436 0.317 8 12 5
0.0832346 0.102436 0.317 7 11 4
0.0840376 0.102436 0.317 8 12 5
0.0848407 0.102436 0.317 9 13 6
0.0853735 0.102113 0.316 11 13 4
0.0975862 0.108576 0.336 60 29 16
0.0984373 0.108576 0.336 73 43 27
0.098993 0.108253 0.335 75 45 29
0.0998416 0.108253 0.335 77 47 31
0.10069 0.108253 0.335 71 41 25
0.101236 0.107929 0.334 74 44 28
0.102082 0.107929 0.334 59 29 13
0.102928 0.107929 0.334 67 37 21
0.103774 0.107929 0.334 84 51 34
0.104307 0.107606 0.333 79 47 27
0.10515 0.107606 0.333 77 45 25
0.105994 0.107606 0.333 76 44 24
0.106517 0.107283 0.332 78 46 26
0.107358 0.107283 0.332 79 47 27
0.107873 0.10696 0.331 80 48 28
0.108711 0.10696 0.331 78 46 26
0.10955 0.10696 0.331 80 46 26
0.110388 0.10696 0.331 78 44 24
0.110891 0.106637 0.33 66 32 12
0.111727 0.106637 0.33 82 50 30
0.112222 0.106314 0.329 80 48 28
0.112711 0.105991 0.328 76 44 24
0.113542 0.105991 0.328 79 47 27
0.114025 0.105667 0.327 78 46 26
0.114502 0.105344 0.326 78 46 26
0.114974 0.105021 0.325 78 46 26
0.115797 0.105021 0.325 78 46 26
0.11662 0.105021 0.325 73 41 21
0.117082 0.104698 0.324 71 39 19
0.117539 0.104375 0.323 75 42 25
0.118357 0.104375 0.323 78 45 28
